# .PCD v0.7 - Point Cloud Data file format
VERSION 0.7
FIELDS x y z rgba
SIZE 4 4 4 4
TYPE F F F U
COUNT 1 1 1 1
WIDTH 1175
HEIGHT 1
VIEWPOINT 0 0 0 1 0 0 0
POINTS 1175
DATA ascii
0.32006836 0.47554663 0.4284668 5060929
0.30981445 0.49614894 0.44458008 4995643
0.3829585 0.44018555 0.4519043 4666681
0.38305664 0.44018555 0.4519856 4666681
0.34936523 0.49731445 0.43520603 3812912
0.33032227 0.42300817 0.48852539 7366536
0.32280082 0.47973633 0.42700195 4863806
0.31261104 0.45629883 0.42993164 5127238
0.3112793 0.45629883 0.43107423 5193543
0.30395508 0.48266602 0.44646418 5127752
0.33325195 0.43293038 0.45336914 6510190
0.33325195 0.43286133 0.45355603 6510190
0.33522055 0.43286133 0.45336914 6510447
0.3347168 0.43289602 0.45336914 6510447
0.31955814 0.48852539 0.43286133 4863805
0.31860352 0.48852539 0.4336471 4929341
0.36254883 0.50610352 0.45305654 3681328
0.34532055 0.44750977 0.41381836 4075064
0.35935077 0.46069336 0.43286133 4404025
0.35961914 0.46069336 0.4331699 4404025
0.35904029 0.45483398 0.42993164 4273208
0.37573242 0.50170898 0.46553615 3943986
0.34412616 0.4753418 0.42114258 4141367
0.3449707 0.4753418 0.42201805 4207160
0.32885742 0.43133387 0.45776367 6510444
0.33032227 0.43133482 0.45776367 6510187
0.33178711 0.43110779 0.45776367 6510186
0.33325195 0.43097416 0.45776367 6510188
0.3347168 0.43103123 0.45776367 6444655
0.37373948 0.44018555 0.44165039 4339000
0.37426758 0.44018555 0.44211924 4339000
0.30294719 0.49291992 0.45043945 5061698
0.33618164 0.43093413 0.45776367 6576499
0.28344727 0.43432617 0.4539606 5588306
0.34653476 0.47973633 0.42553711 4206646
0.33764648 0.43107495 0.45776367 6707575
0.29078728 0.44018555 0.44604492 5521737
0.29077148 0.44018555 0.44605976 5521737
0.3581543 0.50610352 0.44814515 3812143
0.34643555 0.48005036 0.42553711 4206646
0.34790039 0.47973633 0.42695707 4272183
0.36987305 0.43216994 0.45629883 10066361
0.36987305 0.43526739 0.44604492 8945829
0.37133789 0.43525687 0.44604492 7629191
0.32739258 0.48852539 0.42512679 4929598
0.31860352 0.44165039 0.42633945 5852771
0.29835463 0.48120117 0.4519043 5325129
0.2980957 0.48120117 0.45214406 5325129
0.37133789 0.43240845 0.45629883 9735605
0.30688477 0.47827148 0.44240138 5127498
0.33911133 0.43118158 0.45776367 6904444
0.34057617 0.43122828 0.45776367 8289699
0.37280273 0.43263888 0.45629883 9538228
0.37426758 0.43267766 0.45629883 9210029
0.33900154 0.45922852 0.40942383 4141111
0.36976865 0.45629883 0.44311523 4339003
0.36987305 0.45629883 0.44327137 4339003
0.37133789 0.45629883 0.44456896 4338747
0.34204102 0.43102595 0.45776367 8947872
0.34936523 0.43136352 0.45776367 7168133
0.30249023 0.49291992 0.45087284 5061698
0.35083008 0.43135542 0.45776367 7299981
0.35229492 0.43130615 0.45776367 7629208
0.35375977 0.43118918 0.45776367 8026275
0.27886087 0.48852539 0.47241211 5390663
0.35522461 0.43118855 0.45776367 8355760
0.35668945 0.43138656 0.45776367 8749750
0.30219147 0.44604492 0.43579102 5193541
0.31476563 0.50317383 0.44165039 4929854
0.36108398 0.43138453 0.45776367 11979762
0.30249023 0.44662118 0.43579102 5193541
0.36254883 0.43131959 0.45776367 11318740
0.31625581 0.49291992 0.43725586 4863807
0.35956329 0.45922852 0.43286133 4404282
0.35961914 0.45922852 0.43291658 4404282
0.28344727 0.43139648 0.45621717 6444646
0.37280273 0.43549567 0.44604492 5917791
0.37426758 0.47094727 0.4529309 4470073
0.27905273 0.46046847 0.46362305 5251140
0.31567383 0.49291992 0.43787226 4863807
0.31693956 0.50024414 0.4387207 4798782
0.3449707 0.50170898 0.43197432 3943474
0.32592773 0.44168144 0.4284668 6378599
0.30688477 0.44008556 0.43286133 5192527
0.34573746 0.44604492 0.4152832 4206135
0.31567383 0.50024414 0.44001052 4798782
0.33911133 0.45922852 0.4094649 4141111
0.31713867 0.50084847 0.4387207 4798782
0.34846416 0.48999023 0.43139648 4010033
0.31624174 0.45776367 0.42700195 5192773
0.33409584 0.4987793 0.42260742 4337971
0.31674063 0.49438477 0.43725586 4864316
0.30834961 0.43745139 0.4387207 6313319
0.31366938 0.43725586 0.4387207 5983322
0.35522461 0.45483398 0.42586681 4338233
0.35839266 0.44750977 0.42700195 4338489
0.36029235 0.4753418 0.4387207 4207416
0.27981466 0.47973633 0.46948242 5523025
0.35806218 0.46948242 0.43432617 4338743
0.33325195 0.4987793 0.42294869 4732729
0.36108398 0.4753418 0.43951112 4207157
0.3581543 0.44893107 0.42700195 4338490
0.35961914 0.44750977 0.42837957 4404026
0.34739026 0.47680664 0.42553711 4141623
0.37426758 0.4387207 0.44287556 4469817
0.31706229 0.4753418 0.43139648 4995649
0.31567383 0.4753418 0.43275389 4995394
0.29054934 0.4387207 0.44604492 5390408
0.31713867 0.47554219 0.43139648 4995649
0.34919599 0.47973633 0.4284668 4206645
0.34936523 0.47973633 0.42864114 4206645
0.37573242 0.49291992 0.46268404 4338488
0.29077148 0.44010639 0.44604492 5521737
0.35083008 0.47973633 0.42988044 4140852
0.3815918 0.50317383 0.4722389 3548458
0.29638523 0.5090332 0.46069336 4534843
0.32548881 0.46801758 0.42114258 4929857
0.3569302 0.49584961 0.44311523 3878707
0.33256835 0.42260742 0.48852539 7497608
0.35855323 0.46362305 0.43286133 4469816
0.35961914 0.46362305 0.43389642 4404281
0.29547739 0.44018555 0.44165039 5193287
0.29516602 0.44018555 0.44192556 5193287
0.33032227 0.43286133 0.45213225 6444914
0.3581543 0.46948242 0.43445739 4338743
0.31567383 0.49438477 0.43830818 4929596
0.32446289 0.44559494 0.41674805 4665915
0.3581543 0.45608535 0.42993164 4338745
0.35043123 0.4621582 0.42260742 4404025
0.30020571 0.49291992 0.45336914 5061445
0.29956055 0.49291992 0.45400158 5061445
0.28326735 0.43579102 0.45336914 5456461
0.28198242 0.43579102 0.45434359 4997450
0.35961914 0.45483398 0.430554 4273208
0.35831124 0.43286133 0.4519043 9079486
0.3347168 0.47973633 0.41638181 4403767
0.32446289 0.44165039 0.43011412 6312807
0.36469832 0.50024414 0.45336914 3878194
0.34790039 0.4855957 0.42893198 4140851
0.35961914 0.43295214 0.4519043 9473993
0.30732012 0.48266602 0.44311523 5061440
0.30688477 0.48266602 0.44356459 5061440
0.3112793 0.43645185 0.44165039 5852507
0.31274414 0.43631744 0.44165039 5851994
0.31420898 0.43645856 0.44165039 5851993
0.3047629 0.4519043 0.43579102 5259080
0.30395508 0.4519043 0.43643248 5521481
0.37096977 0.44897461 0.44165039 4404281
0.37133789 0.44897461 0.44205338 4404281
0.31567383 0.43656361 0.44165039 5852507
0.31713867 0.436205 0.44165039 6049373
0.3581543 0.49438477 0.44403842 3944242
0.30688477 0.44750977 0.43255177 5061701
0.34204102 0.50756836 0.43110996 3812657
0.30608338 0.4987793 0.44897461 4864577
0.31274414 0.42240989 0.48999023 6773622
0.31420898 0.42176685 0.48999023 6707064
0.31713867 0.49572816 0.43725586 4864061
0.37426758 0.46892351 0.4519043 4601401
0.35238221 0.45483398 0.42260742 4469302
0.35229492 0.45519465 0.42260742 4469302
0.3581543 0.43385559 0.44897461 8749233
0.28220406 0.47680664 0.46655273 5720144
0.31567383 0.42160115 0.48999023 6839930
0.31854168 0.42114258 0.48999023 6971000
0.36124897 0.47241211 0.4387207 4272952
0.34599477 0.44897461 0.41381836 4403513
0.30541992 0.4987793 0.44971028 4995649
0.31274414 0.44458008 0.42543104 4929602
0.30578756 0.44604492 0.43286133 5192516
0.30541992 0.44604492 0.43321726 5192516
0.30170467 0.44165039 0.43579102 5061959
0.34643555 0.44897461 0.41427001 4403513
0.3197296 0.45483398 0.42260742 5061442
0.30102539 0.44165039 0.43658453 5127496
0.31860352 0.45483398 0.42368975 5127235
0.36401367 0.49584961 0.4509353 4075316
0.32006836 0.45578593 0.42260742 4996165
0.37840781 0.44165039 0.44750977 4470072
0.37866211 0.44165039 0.44785973 4470072
0.3019928 0.44018555 0.43579102 5126725
0.30102539 0.44018555 0.43687081 5126984
0.30067402 0.45629883 0.44165039 5522251
0.33618164 0.47973633 0.41602543 4141108
0.30102539 0.45765659 0.44165039 5456716
0.31420898 0.43740812 0.4387207 5983322
0.38245869 0.47973633 0.46508789 4536124
0.38305664 0.47973633 0.46588531 4601916
0.36900616 0.47973633 0.45043945 4338746
0.36987305 0.47973633 0.4512949 4338745
0.29536644 0.48120117 0.45483398 5259848
0.30242884 0.5090332 0.45483398 4994363
0.33911133 0.45901623 0.40942383 4141111
0.34057617 0.45776367 0.41030383 4206901
0.29516602 0.48120117 0.45502219 5259848
0.31420898 0.43725586 0.43909723 5983322
0.36544737 0.45483398 0.43725586 4404283
0.32299805 0.42093447 0.49584961 7366277
0.33032227 0.42253098 0.49145508 7498123
0.32748538 0.46508789 0.41821289 4929856
0.35083008 0.4621582 0.42301786 4404025
0.37877259 0.44018555 0.44750977 4404536
0.37866211 0.440577 0.44750977 4404536
0.2943671 0.50610352 0.4621582 4798019
0.31333241 0.45776367 0.42993164 5061958
0.31274414 0.45776367 0.43047842 5061958
0.32299805 0.49145508 0.43037847 4798525
0.27905273 0.47973633 0.47002137 5061193
0.36210674 0.50024414 0.45043945 3681584
0.36254883 0.50024414 0.45097059 3681584
0.34643555 0.48413086 0.42686254 4075573
0.32265702 0.48413086 0.4284668 4863805
0.30636936 0.49438477 0.44750977 4995648
0.32739258 0.46508789 0.41831529 4929856
0.30106002 0.45776367 0.44165039 5456716
0.30102539 0.45776367 0.44168082 5456716
0.30224353 0.46069336 0.44165039 5587530
0.30102539 0.46069336 0.44286156 5456459
0.30249023 0.4613913 0.44165039 5587530
0.28491211 0.43224171 0.45483398 6247010
0.28491211 0.43139648 0.45605159 6575464
0.38208011 0.49731445 0.47094727 4338486
0.38305664 0.49731445 0.47190195 4338483
0.33180767 0.47387695 0.41674805 4732735
0.33178711 0.47387695 0.41676775 4732735
0.30688477 0.4987793 0.44820431 4929856
0.3051548 0.50610352 0.4519043 4995393
0.30395508 0.50610352 0.45295107 4929857
0.35220739 0.45043945 0.42114258 4272951
0.35229492 0.45043945 0.42126113 4272951
0.3409431 0.47387695 0.41674805 4272692
0.34057617 0.47482613 0.41674805 4206899
0.34204102 0.47387695 0.41820988 4010294
0.31713867 0.42124933 0.48999023 7102330
0.31713867 0.42114258 0.49054781 7102330
0.37426758 0.44897461 0.44493631 4404793
0.35311228 0.47680664 0.43139648 4141623
0.35375977 0.47680664 0.43209192 4141623
0.37032887 0.49291992 0.45629883 4272437
0.36987305 0.49391502 0.45629883 4206900
0.37133789 0.49291992 0.45756605 4272950
0.33178711 0.44415483 0.41821289 6772596
0.33325195 0.44390443 0.41821289 6707313
0.3347168 0.444325 0.41821289 6510439
0.33618164 0.44434223 0.41821289 6510445
0.32892457 0.46948242 0.41821289 4864063
0.32885742 0.46948242 0.41828436 4864063
0.3436738 0.46948242 0.41821289 4207160
0.33837333 0.48852539 0.41967773 4075571
0.34350586 0.46995673 0.41821289 4207160
0.35375977 0.45043945 0.4224923 4338231
0.33764648 0.44406924 0.41821289 6708084
0.33911133 0.44440213 0.41821289 6839672
0.32446289 0.44458008 0.41744077 4993602
0.29306942 0.47387695 0.45483398 5456970
0.29223633 0.47387695 0.45567992 5391691
0.28198242 0.47680664 0.46678337 5720144
0.32885742 0.46927902 0.41821289 4864063
0.3442525 0.46801758 0.41821289 4207159
0.36009467 0.45776367 0.43286133 4338746
0.35961914 0.45906842 0.43286133 4404282
0.36108398 0.45776367 0.43370005 4403770
0.3449707 0.46801758 0.41926029 4207160
0.33764648 0.47973633 0.41618025 4010037
0.36047396 0.4621582 0.43432617 4469816
0.36108398 0.4621582 0.43506104 4535352
0.32885742 0.51005834 0.42993164 4864317
0.34052378 0.5090332 0.42993164 3812657
0.27915967 0.46069336 0.46362305 5251140
0.27905273 0.46069336 0.46367338 5251140
0.28423354 0.48413086 0.46655273 5588299
0.36844981 0.46655273 0.44458008 4404283
0.32446289 0.4284668 0.46740192 6247272
0.32592773 0.42861354 0.46655273 6181222
0.32592773 0.4284668 0.46726921 6181222
0.34057617 0.44439697 0.41821289 6905467
0.34204102 0.44443056 0.41821289 6905976
0.34350586 0.44421911 0.41821289 6512244
0.3449707 0.44403055 0.41821289 5784402
0.30541992 0.50170898 0.4504337 5060930
0.35156876 0.45776367 0.42260742 4403770
0.28721365 0.50024414 0.46801758 5193031
0.35429752 0.48852539 0.43725586 4141364
0.35375977 0.48988518 0.43725586 4272179
0.35522461 0.48852539 0.4381662 4206394
0.31227925 0.48413086 0.4387207 4995903
0.3112793 0.48413086 0.43971664 4930370
0.34643555 0.44438598 0.41821289 4597821
0.30102539 0.5090332 0.45620835 4535353
0.30249023 0.50929499 0.45483398 4994363
0.34790039 0.44456854 0.41821289 4205877
0.33911133 0.46508789 0.41171646 4141365
0.33273602 0.45776367 0.41088867 4798272
0.3581543 0.4519043 0.42800763 4338744
0.3684082 0.46667418 0.44458008 4404283
0.35961914 0.43375868 0.44897461 8946865
0.32299805 0.47973633 0.42682475 4863806
0.32446289 0.48013502 0.42553711 4864063
0.30102539 0.42537749 0.47680664 6113892
0.36030334 0.51196289 0.4519043 3023149
0.30249023 0.42537275 0.47680664 6311782
0.32592773 0.43176261 0.45483398 6510702
0.32739258 0.43152505 0.45483398 6379121
0.30519846 0.46508789 0.44018555 5324873
0.30541992 0.46598548 0.44018555 5324617
0.30277157 0.4621582 0.44165039 5456458
0.30249023 0.4621582 0.44194114 5456458
0.32739258 0.43139648 0.45529667 6379121
0.32514086 0.51342773 0.43432617 4798783
0.32446289 0.51342773 0.43491289 4798783
0.3017526 0.45922852 0.44165039 5456971
0.30102539 0.45922852 0.44253182 5456715
0.27905273 0.46362305 0.46465516 5386816
0.28078613 0.46362305 0.46362305 5391688
0.28051758 0.46362305 0.46384585 5391688
0.30395508 0.42523018 0.47680664 6444136
0.30541992 0.50740802 0.4519043 4864322
0.3215332 0.48413086 0.42953613 4798271
0.32299805 0.48518202 0.4284668 4798267
0.34643555 0.44679618 0.4152832 4206646
0.31860352 0.47094727 0.42863643 5061184
0.31906047 0.47241211 0.4284668 5061440
0.35829133 0.46508789 0.43286133 4207672
0.3581543 0.46561122 0.43286133 4207672
0.34643555 0.44604492 0.41582394 4206135
0.34790039 0.44604492 0.41643602 4010040
0.34936523 0.50631464 0.4387207 3746861
0.303289 0.46362305 0.44165039 5390666
0.30249023 0.46362305 0.44243923 5456199
0.30395508 0.46501458 0.44165039 5390408
0.30541992 0.42536107 0.47680664 6313063
0.31157562 0.48706055 0.44018555 4930113
0.3112793 0.48706055 0.44049907 4930113
0.30688477 0.42543516 0.47680664 6313062
0.3820636 0.44311523 0.4519043 4535609
0.38305664 0.44311523 0.4528853 4535610
0.34160134 0.44165039 0.42407227 7431294
0.37533808 0.50170898 0.46508789 3943986
0.30834961 0.42535868 0.47680664 6247526
0.30981445 0.42490733 0.47680664 6313577
0.31420898 0.43432617 0.44535169 5983578
0.36108398 0.47312087 0.4387207 4272952
0.32739258 0.42869899 0.46655273 6247015
0.27991897 0.4621582 0.46362305 5719884
0.27905273 0.4621582 0.46412125 5578559
0.28051758 0.46295783 0.46362305 5391688
0.36054289 0.46069336 0.43432617 4535351
0.36108398 0.46069336 0.43488818 4535351
0.37133789 0.45222986 0.44311523 4535353
0.30981445 0.42407227 0.47786391 6247783
0.31868562 0.42114258 0.48999023 6971000
0.3112793 0.42459977 0.47680664 6642033
0.31274414 0.42458409 0.47680664 6708086
0.36350375 0.44750977 0.43286133 4273464
0.31420898 0.42475948 0.47680664 6773875
0.31567383 0.42485949 0.47680664 6445422
0.32006836 0.42126614 0.48999023 6905722
0.32006836 0.42114258 0.49033189 6905722
0.3215332 0.42151439 0.48999023 7037567
0.30463597 0.47827148 0.44458008 5258823
0.30395508 0.47827148 0.44533852 5324359
0.30097434 0.49584961 0.45336914 4996162
0.29956055 0.49584961 0.45476708 5061954
0.33306748 0.45336914 0.40942383 4732735
0.31713867 0.4248192 0.47680664 6182248
0.36401367 0.44750977 0.43342543 4273464
0.36052522 0.47827148 0.44018555 4206651
0.38133955 0.48266602 0.46508789 4535865
0.3815918 0.48266602 0.46534654 4535865
0.31860352 0.42497173 0.47680664 6181733
0.36108398 0.47827148 0.44076815 4206651
0.32299805 0.44311523 0.41980517 6051688
0.32739258 0.4284668 0.46760052 6312808
0.3816295 0.44458008 0.4519043 4535865
0.36090562 0.45922852 0.43432617 4470073
0.36108398 0.45922852 0.43449295 4470073
0.36254883 0.45922852 0.43561038 4535355
0.28521121 0.47241211 0.4621582 5654607
0.28790927 0.4387207 0.44897461 5456715
0.36695513 0.48266602 0.44897461 4272952
0.36694336 0.48272136 0.44897461 4272952
0.29506639 0.4753418 0.45336914 5522508
0.3815918 0.4447369 0.4519043 4535865
0.32006836 0.42511678 0.47680664 6247273
0.3215332 0.42529723 0.47680664 6313069
0.33911133 0.50969398 0.4284668 3747373
0.32299805 0.42533952 0.47680664 6444653
0.36543703 0.44604492 0.43432617 4469815
0.36547852 0.44604492 0.43436638 4469815
0.30752671 0.46801758 0.4387207 5259336
0.29370117 0.4753418 0.45460954 5522507
0.29516602 0.47562101 0.45336914 5522508
0.2878418 0.4387207 0.44903913 5456715
0.3537246 0.48999023 0.43725586 4272179
0.35375977 0.48999023 0.43729502 4272179
0.32347161 0.50170898 0.43286133 4930111
0.31713867 0.43579102 0.44255871 5983837
0.31860352 0.43661559 0.44165039 5984352
0.32492173 0.44311523 0.41967773 6380146
0.30688477 0.46801758 0.43941307 5259336
0.34736463 0.48120117 0.42700195 4271924
0.34790039 0.48120117 0.42753586 4271924
0.3175405 0.48120117 0.43286133 4864576
0.30249023 0.44604492 0.43547279 5193541
0.36813527 0.44458008 0.43725586 4404022
0.3684082 0.44458008 0.43773469 4404022
0.30419731 0.44604492 0.43432617 5193029
0.3215332 0.42114258 0.49128878 7037823
0.32299805 0.42184347 0.48999023 7169667
0.30701008 0.46655273 0.4387207 5390663
0.37280273 0.50317383 0.46274891 3746864
0.30395508 0.44604492 0.43455905 5193029
0.30688477 0.46655273 0.43885955 5390663
0.37573242 0.45922852 0.45026201 4469818
0.30042166 0.44165039 0.43725586 5127496
0.32205963 0.48706055 0.42993164 4863805
0.35994926 0.46362305 0.43432617 4404281
0.35961914 0.46496153 0.43432617 4273210
0.36108398 0.46362305 0.4356603 4469816
0.28136185 0.46508789 0.46362305 5785679
0.28051758 0.46508789 0.46428823 5391694
0.28491211 0.47241211 0.4624106 5654607
0.33325195 0.46362305 0.41220236 4798268
0.32924488 0.47094727 0.41821289 4798273
0.32885742 0.47094727 0.41866311 4798273
0.34318629 0.47094727 0.41821289 4272696
0.34350586 0.47094727 0.4186421 4272696
0.36108398 0.43361107 0.44897461 9078703
0.32299805 0.50170898 0.43330184 4930111
0.32388914 0.50317383 0.43286133 4929596
0.38119537 0.44604492 0.4519043 4535867
0.3815918 0.44604492 0.45234782 4535867
0.29223633 0.44458008 0.44596034 5325898
0.30249023 0.44165039 0.43503171 5061957
0.36254883 0.43370685 0.44897461 9142703
0.3215332 0.48706055 0.4304274 4863805
0.33120441 0.48706055 0.42114258 4470329
0.36401367 0.43366325 0.44897461 9408194
0.30541992 0.49438477 0.44838858 5061184
0.32446289 0.42503521 0.47680664 6379372
0.32592773 0.42496818 0.47680664 6444650
0.37573242 0.47387695 0.45556065 4404536
0.32739258 0.42506275 0.47680664 6247524
0.34790039 0.47680664 0.4262113 4141623
0.33459201 0.44458008 0.41674805 6510183
0.37573242 0.43661156 0.44604492 4600125
0.29372725 0.44458008 0.44458008 5325639
0.29370117 0.44458008 0.44460621 5325639
0.37148464 0.44311523 0.44018555 4338489
0.37133789 0.44346145 0.44018555 4338489
0.37280273 0.44311523 0.44157386 4338747
0.32446289 0.46801758 0.42210653 4995392
0.35529646 0.4855957 0.43725586 4075573
0.38085809 0.44750977 0.4519043 4535866
0.3815918 0.44750977 0.45295304 4535867
0.29169577 0.44311523 0.44604492 5390923
0.29077148 0.44311523 0.44691786 5456716
0.38394198 0.44165039 0.45336914 4601651
0.38452148 0.44165039 0.45401913 4601651
0.35522461 0.4859682 0.43725586 4075573
0.3347168 0.44461691 0.41674805 6510183
0.3347168 0.44458008 0.41706705 6510183
0.33673662 0.44458008 0.41674805 6510444
0.33618164 0.44470939 0.41674805 6510444
0.33618164 0.44458008 0.41758987 6510445
0.31193307 0.48852539 0.44018555 4864320
0.3112793 0.48852539 0.44083726 4864320
0.37064216 0.46801758 0.44750977 4404537
0.3164964 0.4987793 0.4387207 4798783
0.32299805 0.50317383 0.43369323 4864317
0.35567236 0.48413086 0.43725586 4141109
0.35668945 0.48413086 0.43868464 4206647
0.35229492 0.45776367 0.4234297 4338489
0.35322836 0.49145508 0.43725586 4075826
0.35375977 0.49145508 0.43788573 4075826
0.36547852 0.45483398 0.43728453 4404283
0.34014836 0.44458008 0.41674805 6905208
0.34057617 0.44463408 0.41674805 6905208
0.34790039 0.43458095 0.44750977 8949688
0.32446289 0.42219272 0.48999023 6905725
0.32592773 0.42250931 0.48999023 7168899
0.34473675 0.48120117 0.42407227 4075318
0.30102539 0.49601722 0.45336914 4996162
0.36733967 0.47680664 0.44750977 4273210
0.35668945 0.49671823 0.44311523 3878450
0.32446289 0.43143079 0.45629883 6576500
0.30027804 0.4987793 0.45483398 5061444
0.29956055 0.4987793 0.45554346 5061444
0.29254252 0.47680664 0.45629883 5522508
0.29223633 0.47680664 0.45661828 5522508
0.3449707 0.48120117 0.42434075 4075318
0.31567383 0.4987793 0.43956679 4864573
0.36333749 0.49291992 0.44897461 4206391
0.36694336 0.45483398 0.43846801 4470072
0.33932519 0.43139648 0.45629883 6838141
0.34057617 0.43146834 0.45629883 8357288
0.32938644 0.46655273 0.41674805 4995136
0.32885742 0.46655273 0.41727313 4995136
0.34369525 0.46655273 0.41674805 4206904
0.29988715 0.45776367 0.44311523 5391435
0.29956055 0.45776367 0.44365799 5391435
0.36401367 0.49291992 0.4499276 4206394
0.32592773 0.44330463 0.41967773 6642803
0.32592773 0.44311523 0.42017975 6642803
0.34350586 0.46702939 0.41674805 4206904
0.33318451 0.51196289 0.42700195 4601142
0.33178711 0.51196289 0.42772058 4536635
0.33325195 0.51206428 0.42700195 4601142
0.3347168 0.51309973 0.42700195 4075569
0.33651468 0.51196289 0.42700195 4009521
0.33618164 0.51255745 0.42700195 4009521
0.36175722 0.45776367 0.43432617 4403770
0.36108398 0.45890853 0.43432617 4470073
0.36254883 0.45776367 0.4351837 4470075
0.36174905 0.4621582 0.43579102 4535352
0.36254883 0.4621582 0.43651477 4535351
0.33032227 0.48706055 0.42196897 4732476
0.31597495 0.47680664 0.43286133 4864321
0.31567383 0.47680664 0.43313321 4864321
0.30646014 0.46948242 0.44018555 5193800
0.30075213 0.46069336 0.44311523 5456459
0.29956055 0.46069336 0.44437703 5456970
0.30102539 0.46138528 0.44311523 5456459
0.30541992 0.46948242 0.44118714 5259337
0.30541992 0.5090332 0.45207831 4798528
0.37204069 0.43286133 0.45483398 10196671
0.37280273 0.43295178 0.45483398 9801658
0.30249023 0.43286133 0.4547525 6049370
0.32885742 0.43948916 0.43139648 6510185
0.33032227 0.43963867 0.43139648 6575724
0.35601541 0.48706055 0.4387207 4206644
0.35668945 0.48706055 0.43953568 4141108
0.31285173 0.49145508 0.44018555 4798527
0.31274414 0.49145508 0.44028795 4798527
0.30395508 0.43344688 0.45336914 6049371
0.37094846 0.49438477 0.45776367 4404021
0.37133789 0.49438477 0.45823476 4404021
0.3581543 0.49584961 0.44452077 3813171
0.34185812 0.48266602 0.42114258 4075828
0.37985665 0.50024414 0.46948242 4075826
0.38012695 0.50024414 0.46974978 4075826
0.33178711 0.43945888 0.43139648 6575724
0.37737852 0.44604492 0.44750977 4338743
0.30688477 0.47092938 0.44018555 5193542
0.34057617 0.43139648 0.45666042 8357288
0.33618164 0.43997899 0.43139648 6707567
0.33764648 0.43985811 0.43139648 6642286
0.33911133 0.439803 0.43139648 6707829
0.34057617 0.43937951 0.43139648 7167616
0.34204102 0.43944523 0.43139648 7102333
0.34350586 0.43908554 0.43139648 7102331
0.3449707 0.43911043 0.43139648 7102328
0.34643555 0.43922526 0.43139648 7036792
0.34790039 0.43949842 0.43139648 7497349
0.31246734 0.48999023 0.44018555 4733247
0.3112793 0.48999023 0.44139445 4864319
0.31274414 0.49102238 0.44018555 4798527
0.33764648 0.46362305 0.41058341 4076082
0.30923626 0.47387695 0.4387207 5127492
0.33920443 0.43579102 0.44458008 6904440
0.33911133 0.43581998 0.44458008 6904440
0.37061253 0.4987793 0.45922852 4075317
0.32612753 0.50024414 0.42993164 4929597
0.32592773 0.50024414 0.43011084 4929597
0.37573242 0.46069336 0.45080748 4470329
0.37719727 0.44750977 0.44803229 4469816
0.37133789 0.4987793 0.46008387 4009780
0.30511126 0.50024414 0.45043945 4995392
0.33404845 0.48413086 0.41821289 3353901
0.30249023 0.46508789 0.44289103 5456200
0.30398655 0.46508789 0.44165039 5390408
0.30395508 0.46508789 0.44168484 5390408
0.29350626 0.49584961 0.46069336 5128008
0.29223633 0.49584961 0.46200359 5193287
0.29370117 0.49680558 0.46069336 5061957
0.30834961 0.47387695 0.43950665 5193031
0.32739258 0.44333634 0.41967773 6708343
0.32739258 0.44311523 0.42008898 6708343
0.30395508 0.43286133 0.45439339 5918042
0.30395508 0.50024414 0.45158976 4667971
0.33325195 0.48413086 0.41863024 3878446
0.34351391 0.48999023 0.42553711 4009522
0.34936523 0.43899652 0.43139648 7694473
0.35083008 0.43902171 0.43139648 7825802
0.35229492 0.43914038 0.43139648 7694215
0.32006836 0.43581566 0.44165039 6115426
0.3215332 0.43613034 0.44165039 6246500
0.38283888 0.49438477 0.47094727 4404278
0.32985279 0.47241211 0.41821289 4929854
0.3215332 0.43579102 0.44240791 6246757
0.32299805 0.43628982 0.44165039 6246758
0.32885742 0.47241211 0.41920918 4864321
0.35375977 0.43932852 0.43139648 7497351
0.30961838 0.4855957 0.44165039 4864832
0.30834961 0.4855957 0.44298679 4930371
0.30981445 0.48607197 0.44165039 4864832
0.36795065 0.45043945 0.4387207 4404282
0.38433048 0.44018555 0.45336914 4536115
0.38452148 0.44018555 0.45357475 4536115
0.33032227 0.47377107 0.41821289 4864063
0.2915372 0.44165039 0.44604492 5324875
0.29077148 0.44165039 0.44670442 5522509
0.37362021 0.44165039 0.44165039 4273466
0.37426758 0.44165039 0.44228536 4273466
0.2955991 0.44604492 0.44311523 5325384
0.29516602 0.44604492 0.44364566 5325384
0.29761824 0.44750977 0.44165039 5324873
0.29663086 0.44750977 0.44264305 5325129
0.32181174 0.49145508 0.43139648 4798267
0.36657321 0.4519043 0.43725586 4404792
0.30834961 0.49438477 0.44540855 4864317
0.34244141 0.47241211 0.41821289 4141622
0.3684082 0.45043945 0.43919727 4404282
0.3215332 0.49145508 0.43165126 4798267
0.35522461 0.43953997 0.43139648 7300995
0.3671158 0.50610352 0.45776367 3812398
0.36694336 0.50677443 0.45776367 3812398
0.3684082 0.50610352 0.45914486 3550255
0.30541992 0.43312344 0.45336914 5983581
0.30541992 0.43286133 0.45385951 5983581
0.34350586 0.47241211 0.41927281 4207414
0.30732718 0.47241211 0.44018555 5259078
0.36752263 0.50463867 0.45776367 3747120
0.30688477 0.47241211 0.44063306 5259078
0.30046001 0.45922852 0.44311523 5456715
0.29956055 0.45922852 0.44402498 5390923
0.29016158 0.47387695 0.45776367 5522764
0.28930664 0.47387695 0.4586103 5588558
0.27905273 0.48322755 0.47094727 5126729
0.32737717 0.51782227 0.43286133 4533817
0.32592773 0.51782227 0.43407941 4534323
0.32739258 0.51791006 0.43286133 4533817
0.30132806 0.4621582 0.44311523 5456716
0.30102539 0.4621582 0.44340891 5456716
0.30180624 0.46362305 0.44311523 5456199
0.30102539 0.46362305 0.44390261 5390924
0.35958642 0.46508789 0.43432617 4273210
0.35961914 0.46508789 0.43436453 4273210
0.36228189 0.46069336 0.43579102 4600889
0.36254883 0.46069336 0.43598059 4600889
0.28896043 0.42993164 0.46508789 5849702
0.30290717 0.48266602 0.44750977 5258824
0.37624732 0.47387695 0.45629883 4470071
0.37719727 0.47387695 0.45774242 4470327
0.29516602 0.47241211 0.45230862 5522506
0.36547852 0.43385971 0.44897461 10397137
0.36694336 0.43400183 0.44897461 10658767
0.3684082 0.4342064 0.44897461 10328519
0.31274414 0.49584961 0.44171306 4930110
0.37099943 0.47827148 0.4519043 4469817
0.37133789 0.47827148 0.45225123 4469817
0.31713867 0.48120117 0.43324408 4864576
0.37133789 0.50317383 0.46130165 3681328
0.34681663 0.4753418 0.42407227 4207159
0.38255218 0.49584961 0.47094727 4273204
0.38305664 0.49584961 0.47146177 4273204
0.34033179 0.48706055 0.42114258 4141108
0.34057617 0.48706055 0.42140535 4141108
0.29223633 0.50756836 0.46450049 4731450
0.30834961 0.49665901 0.44604492 4733245
0.36896154 0.49291992 0.45483398 4338229
0.35668945 0.43949556 0.43139648 7170173
0.3581543 0.43963844 0.43139648 5920366
0.35961914 0.43984625 0.43139648 5722717
0.37280273 0.43286133 0.45534429 9801658
0.31567383 0.45776367 0.42755508 5192773
0.32446289 0.43139648 0.45649317 6576500
0.33764648 0.48995242 0.41967773 4075570
0.28389156 0.46801758 0.4621582 5654864
0.37426758 0.43313274 0.45483398 9210543
0.37426758 0.43286133 0.45577782 9210029
0.28344727 0.46801758 0.46256652 5654864
0.33911133 0.48852539 0.42020515 4010037
0.32649386 0.43139648 0.45629883 6576494
0.29956055 0.45043945 0.44028074 5390921
0.28198242 0.48747635 0.46948242 5654350
0.32856458 0.4987793 0.42700195 4864320
0.32592773 0.43150708 0.45629883 6576494
0.3449707 0.43286133 0.45195633 8222101
0.34643555 0.43286806 0.4519043 8023431
0.29376835 0.44897461 0.44604492 5457483
0.33017728 0.49438477 0.42407227 4929854
0.32885742 0.49438477 0.42520303 4929856
0.34790039 0.49291992 0.43196335 3878707
0.31731483 0.45629883 0.42553711 5127492
0.37128106 0.4387207 0.44018555 4338744
0.29370117 0.44897461 0.44611767 5457483
0.29663086 0.50610352 0.45991549 4994883
0.2993952 0.5090332 0.45776367 4862777
0.36863992 0.4387207 0.4387207 4206391
0.33032227 0.49483055 0.42407227 4929854
0.32975549 0.50756836 0.4284668 4732987
0.2980957 0.5090332 0.45896947 4796982
0.29120949 0.47241211 0.45629883 5653836
0.29077148 0.47241211 0.4567323 5653836
0.3684082 0.49404532 0.45483398 4141108
0.35181829 0.51196289 0.44311523 3548204
0.37455103 0.4387207 0.44311523 4469817
0.34936523 0.46069336 0.42097428 4404021
0.32885742 0.50756836 0.42926738 4798782
0.37719727 0.44642672 0.44750977 4338743
0.29605383 0.44311523 0.44165039 5127749
0.29516602 0.44311523 0.44268358 5193798
0.33979478 0.50756836 0.4284668 4009521
0.28895286 0.45629883 0.45336914 5588814
0.3752594 0.50756836 0.46655273 5588298
0.28618219 0.50317383 0.46948242 5193284
0.29719883 0.50463867 0.45922852 4930114
0.37573242 0.47094727 0.45463306 4601145
0.3604691 0.46655273 0.43579102 4470072
0.37573242 0.4621582 0.45151889 4470073
0.36108398 0.46655273 0.43654531 4404537
0.27825731 0.46362305 0.46508789 9203567
0.34567142 0.48706055 0.42700195 4075316
0.27905273 0.46498129 0.46508789 5580861
0.37573242 0.45776367 0.44973797 4404281
0.36270368 0.45922852 0.43579102 4535355
0.36254883 0.45991084 0.43579102 4535355
0.36401367 0.45922852 0.43718559 4535611
0.34643555 0.47628847 0.42407227 4272438
0.34790039 0.4753418 0.42535248 4141367
0.31713867 0.45629883 0.42571706 5127492
0.34057617 0.50756836 0.42921832 3943730
0.32739258 0.45336914 0.41444105 4798782
0.35229492 0.51196289 0.44347081 3548204
0.30329621 0.44311523 0.43432617 5127491
0.35606962 0.50317383 0.44458008 3943473
0.29479754 0.47973633 0.45483398 5325642
0.29370117 0.47973633 0.45593035 5325643
0.29516602 0.48065865 0.45483398 5259848
0.29278952 0.47827148 0.45629883 5457483
0.29223633 0.47827148 0.45686364 5457483
0.37587875 0.45922852 0.45043945 4469818
0.37573242 0.45970756 0.45043945 4469818
0.34703407 0.48266602 0.42700195 4271926
0.34790039 0.48266602 0.42804283 4272178
0.29846713 0.45776367 0.44458008 5391179
0.2980957 0.45776367 0.44486213 5391179
0.36121187 0.46362305 0.43579102 4469816
0.36108398 0.46423277 0.43579102 4469816
0.36254883 0.46362305 0.43707538 4470072
0.34057617 0.5090332 0.42999122 3812657
0.38305664 0.47390035 0.46362305 4535867
0.30981445 0.42376795 0.47827148 6247783
0.37969789 0.49584961 0.46801758 4469558
0.29370117 0.4707469 0.45336914 5588301
0.33178711 0.43286133 0.45219809 6707313
0.34057617 0.48413086 0.42051008 4206899
0.32885742 0.43269336 0.4519043 6248300
0.29331413 0.4284668 0.46801758 6574952
0.3179996 0.4987793 0.43725586 4864063
0.29223633 0.42936498 0.46801758 6706792
0.32739258 0.4987793 0.42829162 4864573
0.32852855 0.49438477 0.42553711 4929856
0.3513763 0.47827148 0.42993164 3944501
0.36320451 0.4621582 0.43725586 4535352
0.36401367 0.4621582 0.43813202 4404533
0.35229492 0.47827148 0.43094611 3945012
0.30688477 0.44604492 0.4316943 5061445
0.33435011 0.4519043 0.40795898 4535610
0.31415698 0.51342773 0.44458008 4665150
0.31274414 0.51342773 0.44585338 4598582
0.31420898 0.51371992 0.44458008 4665150
0.31274414 0.45655784 0.42993164 5127238
0.33227053 0.4753418 0.41674805 4732735
0.3570908 0.45336914 0.42700195 4273209
0.37303552 0.47241211 0.4519043 4535866
0.37280273 0.47303483 0.4519043 4535866
0.29663086 0.50463867 0.45974308 4930114
0.36248991 0.5090332 0.45336914 3482147
0.27911732 0.46508789 0.46508789 5580861
0.27905273 0.46508789 0.46512505 5580861
0.36298966 0.45776367 0.43579102 4470075
0.36401367 0.45776367 0.43684101 4404284
0.38321126 0.48120117 0.46655273 4536123
0.38387203 0.45336914 0.45776367 4405308
0.31209439 0.45483398 0.42993164 5127494
0.38305664 0.48163942 0.46655273 4536123
0.36775598 0.4753418 0.44750977 4404279
0.3684082 0.4753418 0.44835064 4404280
0.2895239 0.44897461 0.45043945 5588301
0.30814326 0.44311523 0.42993164 4929603
0.36994419 0.47680664 0.45043945 4666169
0.30285302 0.49731445 0.4519043 5061698
0.29223633 0.43154368 0.45629883 6313575
0.30966994 0.44458008 0.4284668 4864578
0.30834961 0.44458008 0.42976663 4930115
0.37426758 0.47241211 0.45323974 4470329
0.33178711 0.42275441 0.48852539 7431815
0.2872006 0.45043945 0.45336914 5522764
0.31468225 0.44604492 0.42407227 4929858
0.3347168 0.49959812 0.42260742 4338228
0.28003827 0.45336914 0.46069336 5259331
0.33717972 0.4987793 0.42260742 4075570
0.33618164 0.49987909 0.42260742 4075826
0.33764648 0.4987793 0.42279589 4075570
0.27905273 0.45336914 0.46141484 6561328
0.30981445 0.44521391 0.4284668 4864578
0.3112793 0.45483398 0.4305419 5193286
0.34581637 0.50463867 0.43432617 3877935
0.34643555 0.50463867 0.43512774 3943472
0.33178711 0.42260742 0.48920655 7431815
0.35668945 0.45444953 0.42700195 4338491
0.35249466 0.44897461 0.42114258 4272696
0.3347168 0.4851284 0.41821289 4009776
0.33032227 0.4299165 0.4621582 6312548
0.33178711 0.42964774 0.4621582 6181221
0.30688927 0.47094727 0.44018555 5193542
0.33764648 0.44222289 0.42260742 7036793
0.3213203 0.50463867 0.43579102 4864062
0.29938087 0.46069336 0.44458008 5456970
0.2980957 0.46069336 0.4458904 5456458
0.29956055 0.46122116 0.44458008 5456970
0.30688477 0.47094727 0.44019055 5193542
0.33325195 0.42975107 0.4621582 6247014
0.3347168 0.42977902 0.4621582 6181994
0.37657046 0.46069336 0.4519043 4404537
0.37719727 0.46069336 0.45279971 4273464
0.34643555 0.43286133 0.45192638 8023431
0.29223633 0.43139648 0.45674646 6313575
0.29370117 0.43201742 0.45629883 6641258
0.33618164 0.42971963 0.4621582 6379376
0.33214933 0.48999023 0.42114258 4929852
0.3684082 0.50463867 0.45866114 3747120
0.32006836 0.50463867 0.43703488 4798271
0.29370117 0.43139648 0.45743385 6575720
0.33764648 0.42965105 0.4621582 6642296
0.29516602 0.43199128 0.45629883 6510185
0.33911133 0.42970562 0.4621582 6905979
0.30163404 0.4519043 0.4387207 5390923
0.30102539 0.4519043 0.43935183 5390923
0.36694336 0.4519043 0.43762192 4404792
0.31043094 0.48266602 0.44018555 5061698
0.36254883 0.44018555 0.43312293 4403513
0.30981445 0.48266602 0.44072852 5061698
0.29956055 0.44165039 0.43804809 5127496
0.37573242 0.44018555 0.44382361 4404535
0.31840542 0.47973633 0.43139648 4864319
0.28094736 0.44165039 0.45629883 4470340
0.28051758 0.44165039 0.45660222 4470340
0.31420898 0.44520324 0.42407227 4929602
0.28051758 0.44311523 0.45714721 4470598
0.35564315 0.48852539 0.4387207 4206394
0.35522461 0.48994017 0.4387207 4206642
0.27905273 0.46948242 0.46640757 5387590
0.28344727 0.48413086 0.46734291 5588814
0.33178711 0.45776367 0.41159493 4863811
0.33618164 0.43985972 0.4284668 6707825
0.33911133 0.4399378 0.4284668 6773622
0.34643555 0.43985787 0.4284668 7365760
0.28119159 0.46948242 0.46508789 5522251
0.28051758 0.46948242 0.46567348 5522251
0.31678367 0.44458008 0.42260742 4798271
0.34482101 0.46948242 0.41967773 4206903
0.3449707 0.46948242 0.41988629 4206903
0.37660843 0.45629883 0.45043945 4404535
0.36987305 0.47711816 0.45043945 4666169
0.35495007 0.44311523 0.42407227 4206646
0.35522461 0.44328734 0.42407227 4206646
0.35522461 0.44311523 0.42420101 4206646
0.34057617 0.48266602 0.41966626 4075572
0.34057617 0.42985344 0.4621582 7102071
0.34204102 0.42979649 0.4621582 6642802
0.34045663 0.49438477 0.42407227 4140849
0.34057617 0.49438477 0.42418984 4140849
0.36987305 0.43993202 0.4387207 4207160
0.38000292 0.4387207 0.44897461 4404538
0.38012695 0.4387207 0.44911027 4404538
0.3108176 0.48413086 0.44018555 4930370
0.30225709 0.46508789 0.44311523 5456200
0.30102539 0.46508789 0.44450286 5455946
0.30249023 0.46580264 0.44311523 5456200
0.29895639 0.45922852 0.44458008 5390923
0.2980957 0.45922852 0.44537061 5391435
0.32539019 0.51489258 0.43432617 4733247
0.32446289 0.51489258 0.43520328 4798525
0.34350586 0.4298186 0.4621582 7036024
0.36398369 0.46069336 0.43725586 4404021
0.36401367 0.46069336 0.43728891 4404021
0.3609103 0.46508789 0.43579102 4535610
0.36108398 0.46508789 0.43598852 4535610
0.29988077 0.4621582 0.44458008 5456714
0.29956055 0.4621582 0.44489866 5456714
0.30039775 0.46362305 0.44458008 5390924
0.29956055 0.46362305 0.44545022 5456715
0.28930664 0.44897461 0.45070943 5588301
0.3449707 0.42979586 0.4621582 7565199
0.30981445 0.48413086 0.44125396 4995907
0.33908579 0.44311523 0.42114258 6971259
0.32299805 0.43579102 0.44269577 6247014
0.35520554 0.48999023 0.4387207 4206642
0.35522461 0.48999023 0.438741 4206642
0.33915886 0.44311523 0.42114258 6971259
0.33911133 0.44312158 0.42114258 6971259
0.35766521 0.4753418 0.43579102 4338230
0.3581543 0.4753418 0.43646607 4338230
0.34204102 0.45776367 0.41198799 4272695
0.36009181 0.48266602 0.44165039 4141622
0.34204102 0.43159384 0.45629883 9079981
0.32446289 0.43613347 0.44165039 6313066
0.32446289 0.43579102 0.44227815 6313066
0.32592773 0.43616161 0.44165039 6444652
0.32592773 0.43579102 0.44247845 6444652
0.32739258 0.43650052 0.44165039 6575987
0.34204102 0.43139648 0.45671418 9079981
0.31860352 0.48448381 0.43286133 4929598
0.33453703 0.48999023 0.41967773 4535350
0.32885742 0.43081999 0.45922852 6444650
0.36859474 0.48120117 0.45043945 4338746
0.3684082 0.48208207 0.45043945 4273465
0.36987305 0.48120117 0.45180026 4404281
0.32433605 0.47387695 0.42407227 4929855
0.33032227 0.43078583 0.45922852 6444650
0.33178711 0.43059015 0.45922852 6312291
0.34350586 0.43168882 0.45629883 8223642
0.31567383 0.44458008 0.42330199 4929599
0.36987305 0.4387207 0.43952909 4206394
0.36547852 0.50024414 0.45427412 3878451
0.31592128 0.46069336 0.4284668 5127236
0.34204102 0.46508789 0.41458836 4338231
0.37509164 0.44018555 0.44311523 4404535
0.28334954 0.46655273 0.4621582 5654863
0.32299805 0.47387695 0.42536548 4995392
0.34057617 0.44458008 0.41724643 6905208
0.29370117 0.43432617 0.44981515 6444134
0.28198242 0.46655273 0.4635146 5785425
0.3684082 0.45629883 0.44139928 4339002
0.29579401 0.48266602 0.45483398 5325384
0.29516602 0.48266602 0.45540142 5325384
0.31420898 0.50317383 0.44218591 4929854
0.35668945 0.44311523 0.42545241 4206649
0.35283041 0.44458008 0.42114258 4272440
0.35375977 0.44458008 0.42175996 4338229
0.36694336 0.45336914 0.43794209 4404536
0.36009845 0.44604492 0.4284668 4273207
0.33325195 0.49584961 0.42214641 4864057
0.3347168 0.49584961 0.4214893 4403763
0.34857619 0.44897461 0.41674805 4337976
0.28344727 0.46681589 0.4621582 5654863
0.34936523 0.44897461 0.41775233 4272438
0.33618164 0.49584961 0.42130679 4141106
0.33764648 0.49584961 0.42192572 4206900
0.33325195 0.43061051 0.45922852 6312547
0.34548643 0.46801758 0.41967773 4207160
0.34950069 0.46069336 0.42114258 4404021
0.3428573 0.44458008 0.41674805 6314354
0.32936221 0.44165039 0.42553711 6510446
0.29516602 0.43485278 0.44897461 6312806
0.38344061 0.44311523 0.45336914 4535610
0.38305664 0.44384715 0.45336914 4535610
0.29516602 0.43432617 0.44997939 6378598
0.33261669 0.48120117 0.41821289 4272955
0.33178711 0.45336914 0.41055337 4798272
0.33325195 0.45396054 0.40942383 4732735
0.3410449 0.45336914 0.40942383 4141365
0.34204102 0.45336914 0.41087741 4141110
0.3449707 0.46898696 0.41967773 4206903
0.37033832 0.47973633 0.4519043 4338745
0.37133789 0.47973633 0.4529953 4469819
0.30199915 0.49438477 0.4519043 5126978
0.34643555 0.46801758 0.42035443 4206904
0.3268736 0.44458008 0.41674805 5720677
0.30102539 0.49438477 0.45283267 5061698
0.29663086 0.43472859 0.44897461 6246755
0.29663086 0.43432617 0.44990489 6312804
0.37609875 0.4621582 0.4519043 4470073
0.37573242 0.46326837 0.4519043 4535867
0.37719727 0.4621582 0.45335361 4404537
0.32592773 0.44482109 0.41674805 4994896
0.37824643 0.47094727 0.45776367 4470328
0.37866211 0.47094727 0.4583104 4470328
0.30395508 0.49438477 0.44987896 5061440
0.37573242 0.46362305 0.45209041 4535867
0.37630808 0.45776367 0.45043945 4404281
0.37719727 0.45776367 0.4516795 4404791
0.36407977 0.45922852 0.43725586 4535611
0.36401367 0.46029171 0.43725586 4404021
0.32592773 0.44458008 0.41711724 4994896
0.32564303 0.4987793 0.42993164 4798524
0.36547852 0.45068362 0.43579102 4404024
0.3347168 0.4753418 0.4149344 4535608
0.32446289 0.47455132 0.42407227 4929855
0.29223633 0.43406135 0.45043945 6378340
0.31420898 0.44235086 0.42553711 4862794
0.30249023 0.44311523 0.43500409 5127492
0.30395508 0.44445887 0.43432617 5193282
0.30395508 0.43978158 0.43432617 4995654
0.33035851 0.47387695 0.41821289 4864063
0.37770617 0.47241211 0.45776367 4470073
0.37866211 0.47241211 0.45873517 4470073
0.33032227 0.47387695 0.41824698 4864063
0.34204376 0.47387695 0.41821289 4010294
0.33032227 0.44180742 0.42553711 6707052
0.33032227 0.44165039 0.42653945 6706796
0.31567383 0.46069336 0.42875373 5127236
0.34204102 0.47388634 0.41821289 4010294
0.34350586 0.47387695 0.41967428 4206905
0.37706304 0.45922852 0.4519043 4404534
0.37719727 0.45922852 0.45206192 4404534
0.28344727 0.45336914 0.45766601 5654863
0.28495395 0.45336914 0.45629883 5588815
0.29370117 0.43408641 0.45043945 6444134
0.32446289 0.4987793 0.4310869 4864061
0.32592773 0.49964496 0.42993164 4929597
0.32577354 0.49438477 0.4284668 4929599
0.3213909 0.46948242 0.42553711 4995395
0.3202312 0.48120117 0.42993164 4994623
0.32006836 0.48120117 0.43011326 4994623
0.33325195 0.45891261 0.41088867 4863807
0.32766995 0.4753418 0.42114258 4732735
0.32739258 0.4753418 0.42136678 4732735
0.32739258 0.49438477 0.42682746 4929856
0.2967701 0.45776367 0.44604492 5522507
0.29663086 0.45776367 0.44617394 5522507
0.32006836 0.46948242 0.42664298 4930113
0.36268756 0.46362305 0.43725586 4470072
0.36254883 0.4639248 0.43725586 4470072
0.37005714 0.4519043 0.44165039 4273210
0.28936148 0.44018555 0.44750977 5456459
0.28930664 0.44018555 0.44756475 5456459
0.29223633 0.48120117 0.45775047 5391180
0.29383761 0.48120117 0.45629883 5325388
0.36447179 0.45776367 0.43725586 4404284
0.36547852 0.45776367 0.43856773 4535352
0.29370117 0.48120117 0.45642248 5325388
0.32446289 0.49438477 0.42984053 4995134
0.36446068 0.4621582 0.4387207 4404533
0.36401367 0.46312076 0.4387207 4470071
0.36547852 0.4621582 0.44016436 4404279
0.32592773 0.49497071 0.4284668 4929599
0.34443671 0.48266602 0.42407227 4141110
0.34936523 0.46136916 0.42114258 4404021
0.3215332 0.47009087 0.42553711 4995395
0.30249023 0.49731445 0.45226625 5061698
0.38272724 0.48266602 0.46655273 4470330
0.38305664 0.48266602 0.46692726 4470330
0.3347168 0.43046892 0.45922852 6313067
0.31701893 0.46508789 0.4284668 4995908
0.33618164 0.43054804 0.45922852 6444655
0.38123703 0.43725586 0.45043945 4404283
0.3815918 0.43725586 0.45073324 4404283
0.3449707 0.48266602 0.42483857 4141110
0.33764648 0.43066654 0.45922852 6708087
0.33911133 0.43075868 0.45922852 6904701
0.34057617 0.43080714 0.45922852 8223903
0.30539632 0.48120117 0.44458008 4996164
0.30395508 0.48120117 0.4459967 5193029
0.30541992 0.48126337 0.44458008 4996164
0.33325195 0.48999023 0.42038941 4798269
0.31567383 0.46508789 0.42981747 5061699
0.31713867 0.46555689 0.4284668 4995908
0.37573242 0.50756836 0.46704146 5588298
0.3314884 0.46362305 0.41381836 4929088
0.30249023 0.43923748 0.43579102 5060680
0.31567383 0.45922852 0.42808208 5193284
0.34204102 0.43068248 0.45922852 8881564
0.37573242 0.46508789 0.45244211 4666683
0.30249023 0.4387207 0.43632242 5060680
0.34945714 0.48413086 0.42993164 4206898
0.34350586 0.43107179 0.45922852 7759229
0.3449707 0.43108159 0.45922852 7363962
0.33063248 0.51635742 0.42993164 4732988
0.28487706 0.48120117 0.46508789 5588814
0.33032227 0.51635742 0.43020684 4732988
0.32446289 0.42259422 0.4855957 6642038
0.35229492 0.44897461 0.42099828 4272696
0.37779397 0.46069336 0.45336914 4273464
0.37866211 0.46069336 0.45411173 4404792
0.27775151 0.47680664 0.46948242 9396590
0.36121327 0.50317383 0.45043945 3681067
0.31713867 0.4987793 0.43807817 4798783
0.32247502 0.46801758 0.42407227 4930112
0.34643555 0.43109676 0.45922852 7036539
0.34790039 0.43089885 0.45922852 7102593
0.34936523 0.43081048 0.45922852 7233670
0.35083008 0.43084648 0.45922852 7299982
0.37329832 0.43725586 0.44311523 4534076
0.37426758 0.43838948 0.44311523 4469817
0.37426758 0.43725586 0.44391957 4272444
0.30688477 0.4387207 0.43396521 5587802
0.37133789 0.43877921 0.44018555 4338744
0.33671495 0.45043945 0.40649414 4338231
0.33618164 0.45043945 0.40661734 4338231
0.3215332 0.46801758 0.42492002 4930113
0.29793438 0.46069336 0.44604492 5456458
0.29663086 0.46069336 0.44740775 5456973
0.2980957 0.46158594 0.44604492 5391177
0.3807745 0.43432617 0.45336914 5917528
0.35229492 0.43075216 0.45922852 7629208
0.31713867 0.46020582 0.42700195 5061701
0.35375977 0.43082273 0.45922852 8026020
0.3815918 0.43451759 0.45336914 5125702
0.3815918 0.43432617 0.45360276 5125702
0.36480981 0.46069336 0.4387207 4404281
0.36547852 0.46069336 0.43967769 4470075
0.35522461 0.4309071 0.45922852 8355246
0.36198303 0.46508789 0.43725586 4404537
0.36254883 0.46508789 0.43792033 4404537
0.29741567 0.45922852 0.44604492 5391435
0.29663086 0.45922852 0.44692492 5588045
0.2989018 0.46362305 0.44604492 5456715
0.2980957 0.46362305 0.4467144 5325642
0.33764648 0.45136645 0.40649414 3944499
0.32753927 0.49584961 0.42700195 4864318
0.30095193 0.46508789 0.44458008 5455946
0.29956055 0.46508789 0.44582704 5391179
0.30102539 0.46545491 0.44458008 5455946
0.29821002 0.4621582 0.44604492 5391177
0.2980957 0.4621582 0.446145 5391177
0.32739258 0.49584961 0.42714238 4864318
0.37812281 0.48120117 0.46069336 4601145
0.27905273 0.47820628 0.46948242 5062473
0.38305664 0.43515387 0.45336914 4534842
0.35668945 0.43092692 0.45922852 8552883
0.32192841 0.46655273 0.42407227 4930113
0.3215332 0.46655273 0.42443699 4930113
0.34645748 0.4987793 0.43286133 3812915
0.35771489 0.47827148 0.43725586 4207158
0.36493132 0.49584961 0.4519043 4141107
0.3102012 0.48706055 0.44165039 4864576
0.30981445 0.48706055 0.44202125 4864576
0.3564786 0.4855957 0.4387207 4075572
0.35668945 0.4855957 0.43905309 4075572
0.3581543 0.43099236 0.45922852 8946378
0.33028859 0.45483398 0.41235352 4864064
0.32885742 0.45483398 0.41353706 4864321
0.33032227 0.45497629 0.41235352 4864064
0.34290743 0.45483398 0.41235352 4272696
0.34350586 0.45483398 0.4130542 4272696
0.36547852 0.49584961 0.45249939 4141107
0.35961914 0.43097779 0.45922852 10729962
0.36108398 0.43104771 0.45922852 11980015
0.3581543 0.47827148 0.43776375 4207158
0.27980134 0.4753418 0.46801758 5654352
0.32477847 0.45629883 0.41821289 5192516
0.36254883 0.43096554 0.45922852 11382221
0.32446289 0.45629883 0.41848835 5192516
0.37355253 0.50317383 0.46362305 3812658
0.36401367 0.43118346 0.45922852 8482720
0.36547852 0.43131462 0.45922852 8485040
0.28470111 0.43725586 0.4519043 5391181
0.32515007 0.49731445 0.42993164 4929853
0.3684082 0.43137473 0.45922852 8152713
0.29853466 0.43579102 0.44604492 6115424
0.35961914 0.43262872 0.45336914 9539787
0.36108398 0.43257651 0.45336914 10593751
0.36545071 0.45922852 0.4387207 4535609
0.36547852 0.45922852 0.43874863 4535609
0.32446289 0.49731445 0.43062964 4929853
0.32446289 0.51049805 0.43429449 4798781
0.32611951 0.51049805 0.43286133 4864317
0.37741703 0.45776367 0.4519043 4404791
0.37719727 0.45860204 0.4519043 4404534
0.37866211 0.45776367 0.45326537 4470330
0.32592773 0.51049805 0.43305397 4864317
0.31382394 0.45483398 0.4284668 5061701
0.31274414 0.45483398 0.42944488 5127494
0.28344727 0.43725586 0.45308593 5456718
0.28491211 0.43795547 0.4519043 5391181
0.37182319 0.46801758 0.44897461 4404793
0.32885742 0.50484824 0.4284668 4864318
0.34783366 0.45776367 0.41821289 4338233
0.27905273 0.4753418 0.46853942 5913670
0.34091705 0.50463867 0.4284668 3943986
0.34643555 0.49883148 0.43286133 3812915
0.30053401 0.49438477 0.45336914 5061698
0.29956055 0.49438477 0.45443636 5061700
0.31329376 0.50317383 0.44311523 4864317
0.31274414 0.50317383 0.44363928 4864317
0.31300196 0.50756836 0.44458008 4864063
0.36108398 0.44604492 0.42977229 4338742
0.35736248 0.44458008 0.42553711 4207416
0.29138756 0.49291992 0.4621582 5390663
0.29077148 0.49291992 0.46280473 5390663
0.31274414 0.50756836 0.44483528 4864063
